ply
format ascii 1.0
comment VCGLIB generated
element vertex 1647
property float x
property float y
property float z
end_header
-0.361578 -0.430994 -0.209366 
-0.545183 -0.355776 -0.239345 
-0.515312 0.197561 0.199348 
-0.427003 -0.446871 0.135286 
0.664634 -0.490583 0.109045 
0.208063 0.728252 0.078659 
0.124033 0.23501 0.349384 
-0.576536 0.053708 -0.053631 
0.287668 -0.130181 0.176061 
-0.432375 0.391717 0.370563 
0.538404 -0.423617 -0.255088 
0.873855 -0.159436 0.149036 
-0.19342 0.307461 -0.298191 
0.506301 0.308304 -0.013505 
-0.327985 -0.002435 0.497794 
0.049734 0.373931 0.446088 
-0.154246 -0.413625 -0.034961 
-0.543798 0.188637 0.244444 
-0.185605 0.321773 -0.28806 
0.518894 0.239413 0.38522 
0.637157 -0.10179 0.472806 
0.440824 -0.166706 0.45688 
0.78623 -0.353793 0.160795 
0.496523 0.312093 -0.083171 
-0.176183 0.336325 -0.28381 
0.587194 0.314034 -0.08567 
0.398651 0.530022 0.0403 
0.255455 0.15617 0.193116 
-0.661177 -0.38731 0.205307 
-0.353718 -0.366308 0.221351 
-0.031085 -0.351389 -0.172866 
-0.800433 -0.186566 -0.027644 
-0.202657 0.425743 0.534236 
0.493511 0.303434 -0.137256 
-0.363079 0.116222 -0.299813 
-0.764051 -0.162981 0.239102 
0.251728 0.249466 0.194122 
0.949202 0.004492 -0.044741 
-0.042309 0.53767 -0.275889 
0.581307 0.303946 -0.111013 
0.697145 -0.398849 0.266041 
0.327261 0.161794 0.205367 
-0.685559 -0.154435 0.341793 
-0.583563 -0.037978 0.468569 
-0.656101 -0.09632 -0.184435 
-0.059275 -0.234042 0.138557 
-0.355988 -0.079083 0.441301 
0.675789 -0.471047 0.202208 
-0.428308 0.204977 -0.006082 
-0.266054 0.500982 0.429992 
0.596055 -0.105253 0.48624 
0.546956 -0.228996 0.458774 
-0.543943 -0.412256 0.198351 
0.367581 0.208159 0.187436 
0.067289 0.697224 -0.13166 
-0.660302 0.033491 0.122599 
-0.757902 -0.349097 -0.031106 
-0.10401 -0.299494 0.088004 
-0.231763 0.539945 0.36685 
-0.239273 0.019459 0.512189 
0.331666 -0.45805 0.133116 
0.464457 0.062857 0.447056 
0.778509 -0.205231 0.362172 
-0.121125 0.023287 0.3996 
0.21575 -0.044324 -0.49325 
-0.541287 -0.397822 0.213387 
0.21906 0.435582 0.255332 
-0.251817 0.494184 0.450768 
-0.244211 0.51332 0.264363 
0.937876 -0.05051 -0.06218 
-0.636913 0.05919 0.11217 
0.019947 -0.136655 0.152771 
-0.228877 0.175648 0.57547 
-0.477294 -0.241041 0.375511 
-0.10755 -0.274882 0.150013 
-0.482863 0.035509 -0.240004 
-0.000308 0.629857 0.105654 
-0.564102 -0.46097 -0.080985 
0.09202 -0.047734 0.177051 
0.321437 -0.192666 -0.425157 
-0.711292 -0.016277 0.138516 
0.048817 0.049932 -0.513075 
-0.44931 -0.138191 -0.39637 
-0.668084 -0.41841 0.113501 
-0.481722 0.151178 -0.00478 
-0.34368 -0.269342 0.323683 
0.73099 -0.434417 0.015169 
0.137772 0.436131 -0.459846 
-0.255495 -0.448635 0.035831 
-0.501247 0.222127 0.232753 
0.175956 0.034057 0.197273 
-0.033975 -0.347638 -0.158858 
-0.565434 0.144051 0.145089 
0.277479 -0.355865 0.135874 
0.683461 0.294646 -0.128678 
0.7266 0.346671 0.04903 
-0.439025 -0.086637 -0.393966 
-0.753644 -0.337757 0.159418 
0.880476 -0.278895 -0.078882 
-0.102067 0.518323 -0.168658 
-0.16453 -0.320402 0.173042 
0.173736 -0.139773 0.13607 
-0.213275 -0.101637 0.390662 
-0.489566 0.129522 -0.025972 
0.773851 -0.396096 -0.055667 
0.297254 -0.356353 -0.209529 
-0.049721 -0.235808 0.110667 
-0.515449 0.311457 0.385627 
-0.76695 -0.169133 0.204297 
-0.759703 -0.268549 -0.127843 
-0.510257 0.159627 0.064511 
0.003243 0.052873 0.33634 
-0.751848 -0.089656 0.063252 
0.601576 -0.484972 -0.128606 
0.534189 0.196825 0.408575 
0.30694 -0.310322 0.179974 
-0.242431 -0.335165 0.188306 
-0.354156 0.318982 0.058071 
-0.104212 0.439581 -0.33454 
0.750088 0.205864 0.342299 
-0.39828 -0.007667 -0.389399 
0.477509 0.246113 -0.268053 
0.311887 -0.337503 0.183184 
-0.147034 0.53675 0.113102 
-0.41752 0.297712 0.561432 
-0.707226 -0.027533 0.118914 
-0.274868 -0.413753 -0.180977 
0.719416 0.34361 0.041689 
0.895796 -0.255598 -0.066669 
-0.13858 0.230065 0.546707 
-0.412187 0.069144 0.549443 
-0.576761 -0.419306 0.174119 
0.909192 0.258427 0.016607 
0.975214 0.081936 0.062887 
0.58423 -0.383021 -0.280693 
0.536296 0.306414 -0.053443 
0.876454 0.01332 0.320028 
0.381034 -0.093026 0.363259 
-0.691366 -0.407256 0.073563 
-0.324556 -0.194464 0.366128 
-0.001151 -0.339029 -0.238346 
0.409223 -0.527257 0.111319 
0.184645 0.700854 0.139652 
0.235248 -0.003124 0.174104 
0.92443 0.077366 0.194545 
0.855798 -0.179815 0.185877 
-0.490569 -0.379629 -0.252831 
0.250736 -0.317899 0.134839 
-0.255713 -0.316637 0.20968 
0.911105 0.112598 -0.106548 
0.104945 0.657403 0.166468 
0.340164 0.595917 -0.248794 
0.405626 0.045239 0.378597 
0.144764 -0.3065 -0.125002 
0.197745 -0.348887 -0.092109 
-0.353364 0.074876 -0.371004 
-0.674132 -0.350203 0.241898 
-0.534669 -0.376226 0.229887 
0.820478 0.018081 0.393854 
0.881926 0.08592 0.297614 
0.368183 0.453113 0.109873 
0.116206 0.672931 -0.280754 
0.334304 0.562079 -0.302804 
0.526994 -0.382413 0.394275 
-0.340574 0.092908 -0.367068 
-0.113919 -0.303437 0.107517 
0.153485 -0.288352 0.078059 
0.396975 0.547755 0.030644 
-0.588583 -0.435111 0.107943 
-0.275548 0.419125 0.15282 
-0.179243 -0.105143 0.373728 
-0.306091 0.486084 0.34038 
0.477545 0.235298 0.327517 
-0.771716 -0.116359 -0.01118 
0.056407 -0.309518 -0.0636 
0.075487 -0.107642 0.148658 
-0.445128 0.178328 0.572612 
-0.631404 -0.427741 0.118725 
-0.727168 -0.029963 0.210549 
-0.553376 0.097945 0.009715 
0.404454 0.192924 0.215772 
-0.229546 -0.241315 0.27191 
-0.552176 0.012815 0.512628 
0.424455 -0.398736 0.33301 
0.819973 0.035654 0.391801 
0.83657 -0.288067 0.121389 
-0.602448 -0.324344 -0.209392 
0.670919 -0.387243 0.335877 
0.718291 0.104203 -0.288495 
-0.006669 0.608402 -0.2465 
-0.309394 0.141764 -0.344839 
0.239393 -0.365611 0.077798 
0.52139 0.247977 0.380765 
-0.30442 0.150323 -0.338862 
-0.185595 0.490182 0.086565 
0.47258 -0.417261 -0.255576 
-0.421912 0.01097 0.526005 
0.420009 0.414757 -0.016188 
0.501885 0.313406 -0.044534 
0.207164 0.061082 0.199786 
-0.08542 0.540575 -0.169486 
-0.673365 0.00263 -0.014599 
-0.659032 -0.433871 0.043635 
-0.070825 0.587298 0.309475 
-0.09744 0.454146 -0.324929 
-0.332906 0.348208 0.085076 
-0.410678 -0.438252 -0.172786 
-0.17224 0.388784 -0.223182 
0.252727 -0.266556 0.151932 
-0.276472 0.185496 -0.334593 
-0.352098 -0.43178 0.152283 
0.515793 -0.515844 -0.114492 
-0.007327 0.639373 0.044792 
0.154693 -0.286781 0.080679 
-0.584538 -0.444217 -0.117348 
0.100854 0.700841 -0.22849 
0.735577 -0.323917 0.297691 
-0.115318 -0.230984 0.206732 
-0.283281 0.501973 0.380449 
-0.641882 -0.053116 -0.158043 
-0.253196 -0.302248 0.225962 
0.196841 -0.313205 0.092655 
-0.225335 -0.263023 0.254188 
0.393356 0.182703 0.219868 
0.591504 -0.550763 0.101074 
0.319778 0.616134 0.136496 
-0.203166 0.516296 0.192151 
0.322925 -0.147441 0.236168 
0.499819 0.262427 0.185838 
-0.789548 -0.25255 0.153716 
-0.669796 0.054766 0.263378 
-0.162987 -0.337095 -0.309742 
0.816943 0.101123 0.361435 
-0.39067 0.21499 -0.063117 
0.039809 0.606125 0.305505 
0.888088 -0.041757 0.248775 
-0.612408 -0.459209 -0.062808 
0.145025 0.445755 0.339595 
-0.242127 0.244097 -0.316826 
-0.57743 -0.120322 0.437048 
0.32421 -0.309831 0.1995 
0.327176 -0.077486 0.280531 
-0.236395 0.248772 -0.319583 
-0.185326 0.553895 0.252818 
-0.201858 -0.379956 0.120928 
-0.424843 0.376923 0.452396 
-0.510166 -0.201762 0.401385 
0.715173 -0.382121 -0.195467 
0.925413 -0.006404 0.049856 
-0.228885 0.265124 -0.312128 
-0.670985 0.014197 0.101763 
-0.305918 0.429379 0.214306 
0.231027 0.438653 -0.449313 
-0.624184 0.068216 0.073442 
-0.011385 -0.239735 0.08286 
0.344293 0.585611 -0.255097 
-0.729037 -0.345869 -0.076335 
-0.355497 0.331296 0.098063 
-0.306242 -0.328019 0.261914 
-0.52331 0.195195 0.139401 
-0.3616 0.194122 -0.174139 
0.736252 -0.204026 0.380889 
-0.530228 0.188897 0.163758 
-0.204662 0.294629 -0.30388 
-0.579252 0.015673 0.495599 
-0.680904 0.050245 0.239351 
-0.761149 -0.274414 0.211974 
0.905333 -0.021581 0.133784 
0.390288 -0.498614 0.008123 
0.906366 0.194417 -0.072027 
-0.475906 0.336789 0.33627 
-0.318443 0.289792 -0.102827 
-0.345691 0.332582 0.077505 
0.18222 0.697606 -0.282754 
0.859662 -0.269487 0.069959 
0.437774 0.36234 -0.201928 
-0.42375 -0.132769 0.443567 
0.596479 0.194213 -0.267838 
0.443925 0.345983 -0.141065 
0.512158 0.22523 0.389833 
0.444149 0.003116 0.441139 
0.324736 0.653536 0.010446 
0.909867 0.216961 -0.050632 
-0.174559 0.338006 -0.285677 
-0.182121 -0.075578 0.393423 
0.226308 -0.230068 -0.389845 
-0.34886 0.456166 0.304931 
0.02255 0.633086 0.117908 
0.097604 0.418182 0.387129 
-0.278447 -0.383362 -0.283932 
0.496632 -0.116707 0.499219 
-0.55516 0.141104 0.098334 
-0.159694 0.364706 -0.279961 
-0.494951 -0.441195 0.082074 
-0.526674 -0.27112 0.347886 
-0.600184 0.168256 0.327837 
-0.665801 -0.238505 0.31549 
-0.066299 -0.385545 -0.169194 
0.520163 -0.52122 0.28575 
0.32548 -0.25881 0.201165 
-0.110497 0.510908 -0.167895 
-0.492598 0.324551 0.323987 
-0.315774 0.230079 -0.202306 
-0.23551 0.498244 0.447886 
0.500091 -0.256536 0.443802 
0.826533 -0.28055 -0.174132 
-0.144488 -0.130418 0.334449 
-0.483471 -0.257621 -0.361265 
-0.117231 0.551933 0.063269 
-0.171924 0.420479 -0.182561 
0.292568 -0.285682 -0.294891 
-0.061591 0.391669 0.500272 
-0.105715 -0.394124 -0.18007 
-0.096688 -0.171692 0.26115 
0.297385 -0.406874 -0.116549 
0.372257 0.189866 0.201837 
-0.161682 0.560463 0.183855 
-0.017524 -0.347701 -0.265586 
0.133538 -0.27514 -0.186392 
-0.488996 0.165144 0.026667 
0.424607 -0.507184 -0.042754 
0.434013 0.333846 -0.266465 
0.106802 0.661894 0.199818 
0.839378 -0.302703 0.095427 
0.17085 0.293475 0.27376 
0.444717 0.148553 -0.397645 
0.48941 0.008833 0.48273 
0.361466 0.569921 -0.228727 
-0.155441 -0.166002 0.298043 
0.599241 0.197224 0.408275 
-0.556345 0.135946 0.515618 
-0.142969 -0.410579 -0.080711 
0.257269 0.5723 0.243689 
0.263348 -0.042974 0.177412 
0.006132 0.439242 0.436451 
-0.113755 0.598923 0.170076 
-0.302223 -0.328555 0.257035 
0.039692 0.337146 0.463378 
-0.278098 -0.395702 -0.256528 
-0.156697 0.518854 0.061712 
-0.27763 0.216965 0.584719 
-0.534182 0.108448 -0.016602 
-0.047133 0.538593 0.37961 
-0.307332 0.390195 0.151624 
0.512151 0.23641 0.382985 
-0.162527 -0.32849 0.151274 
0.715118 0.336922 0.14383 
-0.018923 0.610861 -0.187939 
-0.405694 0.150059 -0.164558 
0.09419 0.105482 0.283894 
-0.707621 -0.037065 0.069419 
-0.310767 0.461606 0.462306 
-0.171588 0.485443 -0.000127 
-0.770853 -0.15346 0.15566 
0.015413 0.663437 -0.086354 
-0.390762 -0.405352 0.201518 
0.276989 -0.270879 -0.314974 
-0.674866 -0.016932 -0.079171 
0.216502 0.169189 0.206703 
0.038457 -0.287011 0.010677 
-0.488554 -0.039026 -0.332796 
0.204504 -0.228964 0.130057 
-0.601139 0.160719 0.418255 
-0.542056 -0.455352 -0.117099 
0.157229 -0.268563 0.095612 
-0.651494 -0.042865 0.391755 
-0.496873 0.324086 0.420689 
-0.209976 0.521951 0.416238 
-0.124711 0.556072 0.109166 
-0.595827 -0.459954 -0.068935 
0.519901 -0.022272 0.497149 
-0.390023 -0.056046 0.475362 
-0.754691 -0.150264 0.269502 
0.810285 0.330685 0.156182 
-0.530322 0.287439 0.396114 
0.151239 0.119537 0.258014 
-0.7207 -0.020585 0.21981 
0.243952 0.45521 -0.438877 
0.318974 0.65655 0.090618 
0.452613 0.316668 -0.181142 
0.13372 0.119993 -0.505325 
-0.187889 -0.005596 0.466573 
0.180238 0.724251 0.019054 
0.886062 0.038119 0.310803 
0.264311 0.703475 -0.005862 
-0.339719 0.417363 0.240843 
-0.594461 0.043894 -0.061757 
0.31699 0.63973 -0.18462 
-0.63552 0.032107 0.427442 
-0.246505 0.503905 0.25702 
-0.34222 0.34433 0.100526 
-0.2275 0.37489 -0.141007 
-0.047534 0.608494 0.025976 
-0.432909 0.255581 0.087565 
0.22772 -0.004698 0.171573 
-0.295745 -0.314492 0.257313 
-0.018835 -0.128091 0.179167 
0.417162 0.445256 -0.076145 
0.280635 -0.417051 -0.086384 
0.317492 0.266842 -0.445087 
0.438084 0.025861 0.43223 
-0.311476 0.409622 0.197523 
-0.259466 -0.086891 0.428817 
0.668012 -0.449005 -0.124055 
-0.111947 -0.179915 0.27162 
0.670466 -0.485642 0.156428 
-0.584278 0.094171 0.042814 
0.88457 -0.259803 -0.034183 
-0.555535 -0.379836 0.24004 
0.511195 -0.483686 -0.171518 
0.804525 -0.290072 0.233613 
-0.305947 -0.291657 0.282079 
-0.433103 -0.295644 0.334275 
-0.228157 0.538536 0.325472 
0.640075 -0.491445 -0.041299 
0.33688 0.642943 0.05066 
0.451525 0.179881 0.358431 
0.321463 -0.239664 0.196602 
0.241173 0.730592 0.062233 
0.316364 0.591229 -0.314402 
0.504352 0.235796 -0.256739 
-0.252634 -0.370193 0.167455 
0.811924 -0.080043 0.386775 
-0.32493 0.351649 0.073887 
0.377165 0.184303 0.208415 
0.310924 0.638891 -0.213213 
-0.769413 -0.259148 -0.124023 
-0.622399 0.128639 0.346849 
-0.067966 -0.268468 0.085981 
-0.33012 0.279165 0.580574 
0.677328 -0.45274 -0.087248 
-0.607269 0.090561 0.091003 
-0.201433 -0.113059 0.371627 
-0.550179 -0.057226 -0.281612 
-0.497498 0.178067 0.070316 
-0.323251 0.118343 -0.35032 
-0.155683 -0.318459 0.146356 
-0.312671 0.122735 -0.359696 
-0.495942 0.135853 -0.002708 
-0.749115 -0.235262 0.231974 
-0.126341 0.596349 0.277811 
-0.422765 0.287424 0.133305 
0.460735 0.325451 -0.142682 
-0.212922 0.445243 0.002092 
-0.248308 -0.212332 0.312004 
0.354382 0.341241 -0.398895 
0.855141 -0.191389 0.176949 
-0.089429 0.549588 -0.044629 
0.093485 -0.274539 -0.228507 
-0.15217 -0.310512 0.155607 
-0.229513 0.241521 0.578513 
0.419691 -0.34102 0.357941 
0.522282 -0.360224 0.402303 
-0.232351 0.464318 0.509559 
0.143933 0.233977 -0.498781 
0.623249 -0.411747 0.339337 
-0.641582 0.051022 0.042787 
0.325188 -0.455366 0.055035 
0.830829 -0.200293 -0.230331 
0.471598 -0.505079 -0.114877 
0.921842 0.124906 0.217929 
0.414467 -0.465515 0.293292 
0.549653 0.30211 0.066594 
0.016217 0.582632 -0.312796 
0.188235 0.250414 0.252018 
0.606048 -0.143339 -0.399989 
-0.279945 0.17808 -0.337353 
0.220626 -0.255812 -0.324393 
0.092282 -0.271983 -0.296524 
-0.041391 -0.327003 -0.320563 
0.499105 -0.576627 0.084572 
0.873678 -0.256693 -0.115054 
0.870185 -0.113084 0.246251 
0.433168 -0.489365 -0.080885 
-0.695565 -0.030811 -0.06397 
0.179307 0.734192 -0.068448 
0.243094 -0.38642 -0.078527 
-0.066859 -0.239731 0.144079 
-0.124014 -0.006402 0.3839 
-0.653513 -0.106717 -0.194658 
-0.67591 -0.42998 -0.026601 
-0.516158 0.20188 0.14619 
-0.338197 0.466301 0.315704 
-0.553799 0.048579 -0.098039 
0.51774 0.026083 -0.420048 
0.59 -0.532094 -0.029493 
-0.052944 0.533705 -0.247485 
0.670334 -0.299089 0.382852 
0.37262 0.050489 0.269519 
-0.273714 -0.352604 -0.32356 
-0.266334 -0.398496 0.145218 
-0.470692 0.355904 0.381308 
0.511403 0.288146 0.081987 
-0.390088 -0.390843 -0.27915 
0.160876 0.371445 -0.478751 
0.787613 0.251285 -0.168904 
0.280112 -0.277527 -0.300794 
-0.143436 0.133709 0.508013 
-0.535656 0.106774 -0.018395 
-0.458687 0.044753 -0.264264 
0.013362 0.641293 0.069148 
0.085612 -0.284923 -0.189233 
-0.230183 0.256108 -0.321082 
-0.095119 0.532502 -0.117197 
0.214723 -0.048876 0.153322 
-0.352998 -0.040349 0.46701 
-0.536415 0.244334 0.319926 
-0.446741 -0.430969 -0.200492 
0.290601 0.568718 0.21189 
0.163766 -0.337623 -0.042994 
-0.735035 -0.352596 -0.063767 
-0.217728 0.276923 -0.31158 
0.125912 0.184957 0.308469 
0.301323 -0.217222 0.18132 
0.868218 -0.096764 0.29595 
0.160201 0.707474 0.071685 
0.507601 -0.247135 0.449666 
0.723699 -0.093803 0.443044 
0.203739 -0.080782 0.145671 
0.145272 0.199845 0.283462 
-0.67768 0.040585 0.157017 
-0.041764 0.237836 0.497997 
-0.295209 0.488196 0.306067 
0.33675 -0.419779 -0.153318 
-0.719869 -0.163418 -0.157662 
-0.170527 0.570468 0.252202 
-0.424442 -0.313502 0.302915 
-0.560098 0.131684 0.089935 
-0.423434 0.237656 0.026132 
-0.106782 0.135583 0.489353 
-0.187805 0.314508 -0.297268 
-0.489282 -0.355179 0.257217 
-0.58525 0.123697 0.174356 
0.813154 0.331873 0.144774 
0.712251 0.137427 0.409077 
0.120322 0.667441 0.182496 
-0.177313 0.332103 -0.292666 
-0.75037 -0.064844 0.202698 
-0.121943 -0.066102 0.337455 
-0.600453 -0.434016 0.116182 
-0.286101 0.348429 -0.065497 
0.153358 0.744571 -0.160008 
-0.450087 -0.444937 0.121852 
-0.432241 0.22704 0.027913 
0.337658 0.383269 0.146416 
-0.167505 0.354519 -0.279343 
0.393487 0.363777 0.078276 
-0.215708 0.542728 0.363251 
-0.248029 0.276814 -0.254949 
0.48138 0.162372 0.412332 
0.545843 -0.526813 0.252892 
0.82498 -0.325129 0.10935 
-0.455668 -0.200399 0.395865 
0.010463 0.653849 -0.038499 
0.653611 -0.503057 0.18875 
-0.100401 -0.087791 0.318216 
-0.046716 -0.197712 0.142063 
0.621062 0.032044 0.4895 
-0.136494 0.451463 -0.228236 
0.738971 -0.01395 0.456813 
0.230417 0.246584 0.209344 
-0.459417 -0.259194 -0.372288 
0.766374 -0.146406 0.394487 
-0.29322 -0.454637 0.070562 
0.56598 -0.55807 0.151285 
0.602993 0.235524 0.392382 
0.814027 -0.131262 -0.274236 
0.658367 0.322355 -0.050622 
0.900894 0.076443 -0.137625 
0.121456 0.212177 0.338973 
-0.191018 -0.435447 -0.005449 
0.919271 -0.188011 -0.045352 
0.797295 0.161489 -0.204958 
0.620355 0.311399 0.084635 
0.458243 0.14996 0.400201 
-0.136784 0.47654 -0.158636 
-0.193175 0.443013 0.523043 
-0.445753 0.038311 -0.297948 
-0.080946 -0.38967 -0.134374 
0.548017 -0.561336 0.153103 
-0.025384 0.595911 0.297715 
0.292003 -0.272947 0.171362 
-0.113889 0.142365 0.49998 
-0.773724 -0.171165 0.158839 
-0.291986 0.034948 0.533669 
0.452052 0.107267 0.418997 
0.393054 0.498713 -0.142194 
-0.60892 -0.083617 -0.2469 
-0.020734 0.105785 0.39463 
-0.703134 -0.404056 -0.00031 
0.550044 -0.106052 0.497216 
0.342281 0.481381 0.141635 
0.069933 -0.28774 -0.255289 
-0.08655 -0.190275 0.233998 
0.275092 -0.377674 0.110474 
-0.270488 -0.446391 0.058417 
-0.594635 0.218094 0.456355 
-0.486563 -0.460666 -0.081478 
-0.697134 -0.376176 0.18013 
0.914758 -0.150352 -0.016152 
0.690208 -0.454929 0.083504 
-0.575251 0.159235 0.269015 
-0.479597 0.026257 -0.262573 
-0.301862 -0.25277 0.306703 
0.856834 -0.284071 0.058936 
0.047735 -0.310232 -0.242704 
0.478411 -0.449942 -0.218461 
-0.520239 0.270883 0.327576 
0.858031 0.113386 0.319037 
-0.298907 0.393016 0.540932 
0.66737 0.311474 -0.097216 
0.058928 -0.297104 -0.257045 
-0.116246 -0.108164 0.325668 
-0.185013 0.400692 -0.180024 
-0.28081 0.26535 -0.208867 
-0.059117 -0.243058 0.11466 
-0.253586 -0.389382 0.14405 
-0.415566 0.126314 -0.20127 
-0.511307 0.304782 0.329663 
-0.455741 -0.442749 -0.150234 
0.041512 0.638228 0.238434 
0.203561 0.590692 -0.38705 
0.799341 -0.198221 0.333949 
0.220068 -0.376402 -0.046724 
-0.432938 0.395462 0.331803 
0.614668 0.306601 0.310597 
-0.354142 -0.344617 0.274155 
-0.682039 -0.231 0.308844 
-0.71931 -0.364983 0.148205 
-0.572648 -0.44548 0.038942 
0.31511 -0.236107 0.190597 
-0.065008 -0.113006 0.228162 
-0.785848 -0.288001 0.138263 
-0.192394 0.427425 -0.10919 
0.592369 -0.498505 -0.109382 
0.059034 0.588356 0.331372 
-0.022656 -0.108196 -0.508697 
-0.615983 0.076211 0.458687 
0.353162 0.194245 0.192915 
-0.699533 -0.164201 -0.17851 
-0.791664 -0.285918 0.064939 
-0.481971 0.294124 0.246401 
0.882539 -0.219846 0.05051 
0.172729 -0.333842 -0.09112 
0.570422 0.138339 -0.329987 
0.617943 0.325834 -0.005104 
0.447269 0.201068 0.256252 
-0.609737 0.099171 0.463285 
0.882506 -0.068658 0.201298 
-0.362985 -0.026717 0.48723 
-0.512 0.305612 0.3414 
0.295138 0.663562 -0.102216 
-0.402042 -0.436274 -0.165534 
0.16122 0.444212 -0.457705 
0.148827 0.129356 0.262592 
0.364623 0.126231 0.267369 
0.3093 -0.409451 0.138929 
-0.356124 0.195729 -0.210392 
-0.793791 -0.227807 0.1608 
-0.208973 -0.398949 0.102908 
0.897747 0.229446 0.173974 
-0.643648 0.026316 0.415458 
-0.798339 -0.20025 -0.08124 
0.845633 -0.245859 0.1841 
0.202724 -0.250859 -0.343186 
0.954664 0.060078 -0.043599 
-0.024641 0.268294 0.500751 
-0.426049 0.304985 0.180825 
0.81723 0.281976 -0.119255 
0.579437 0.299985 0.295028 
0.338969 -0.456182 0.191212 
0.851613 -0.210605 0.181143 
-0.451723 0.375306 0.377189 
-0.432706 0.17123 -0.060817 
-0.057396 0.602484 0.085667 
0.751293 -0.302137 0.307521 
-0.122265 -0.306461 0.119306 
0.856529 0.305621 0.083985 
0.421497 0.174414 0.271737 
0.914453 0.009667 -0.142478 
-0.158213 0.43742 -0.167689 
0.748942 0.33079 -0.009598 
-0.201957 -0.07639 0.406533 
-0.34532 -0.427529 -0.223003 
-0.14398 0.397501 -0.264573 
0.699996 -0.429084 -0.124924 
-0.023706 0.592553 -0.236673 
0.985435 0.125143 0.024103 
-0.312183 0.294748 -0.107322 
0.129128 0.175648 0.298536 
0.809718 -0.062911 0.393927 
0.735447 0.011633 0.461074 
-0.110591 -0.383857 -0.216714 
-0.055456 -0.357743 -0.060281 
0.570236 -0.546943 -0.001102 
-0.254552 -0.371486 -0.282706 
0.235054 0.649745 -0.337155 
-0.312582 0.125075 -0.356758 
0.818493 0.324272 0.011866 
0.521596 0.295371 -0.133542 
0.358032 0.097859 0.266962 
0.819902 -0.047986 0.390347 
-0.303037 0.14312 -0.35107 
0.816531 0.149804 0.319902 
-0.378634 0.121121 -0.276204 
0.056211 -0.303228 -0.159285 
-0.325936 -0.382872 -0.292653 
0.00469 -0.332753 -0.289041 
0.047529 -0.305182 -0.278468 
-0.101275 0.467758 -0.271915 
-0.739725 -0.054089 0.130733 
-0.135791 0.488973 -0.128887 
-0.549784 -0.15487 0.421653 
0.667235 0.313905 -0.088803 
0.549633 -0.149893 0.49108 
-0.289293 0.161252 -0.342879 
-0.391459 0.332015 0.160069 
0.312768 -0.447679 0.003246 
-0.215832 -0.040376 0.449187 
-0.626627 0.117823 0.305116 
-0.321478 0.221558 -0.211616 
0.008832 -0.036088 0.220982 
0.315944 -0.427176 0.13088 
0.189385 -0.252036 -0.299728 
-0.349563 0.342432 0.116874 
-0.52085 -0.433636 0.156838 
-0.319966 -0.315716 0.279826 
0.821724 0.075156 0.375521 
0.707117 0.318642 -0.058089 
-0.752242 -0.06614 0.142509 
-0.215501 -0.069981 0.421406 
-0.26642 0.19903 -0.336984 
0.831298 -0.32557 0.051415 
0.094917 0.715948 -0.181019 
0.453167 0.316491 0.05491 
0.736328 0.040498 -0.312243 
0.016836 0.309576 0.479277 
0.211584 0.729717 -0.158115 
0.304928 -0.438509 -0.046697 
-0.488952 -0.454766 0.00906 
0.099193 -0.266797 -0.364573 
-0.254744 0.216665 -0.332428 
0.615947 -0.538155 0.134504 
0.309331 -0.425122 0.112063 
0.153601 0.173785 0.265791 
0.516856 0.300265 0.027327 
-0.714474 -0.047473 0.074309 
-0.746223 -0.109248 0.284395 
-0.254379 0.234865 -0.316942 
0.762438 0.253968 0.310455 
0.484587 0.299071 -0.15953 
0.762498 0.163307 0.352816 
-0.241348 0.242445 -0.325458 
-0.463289 0.06806 -0.215554 
0.32357 0.614875 0.12863 
-0.17398 0.518632 0.135468 
-0.316471 0.020866 0.521609 
-0.02981 -0.318901 -0.339189 
0.378112 -0.393829 0.277799 
0.229742 -0.016543 0.167616 
0.282934 -0.384786 -0.159336 
0.8934 -0.207552 0.027424 
0.104002 0.715226 -0.079373 
-0.146959 -0.265802 0.211314 
0.808628 0.323047 -0.012375 
0.078539 0.20463 0.388348 
0.089368 -0.218964 0.093745 
-0.763559 -0.218464 0.211051 
-0.286176 -0.411883 -0.211319 
0.020934 -0.315928 -0.089667 
0.013527 -0.294951 -0.002839 
-0.404437 0.356276 0.514006 
-0.618546 0.13037 0.311304 
0.381463 -0.363352 0.296816 
-0.208453 0.288026 -0.309288 
-0.635129 0.095087 0.223585 
-0.202877 0.294173 -0.309766 
-0.448534 0.141101 -0.088612 
-0.457707 0.062632 -0.239512 
-0.512375 -0.155434 0.43136 
-0.192979 -0.110924 0.368576 
-0.137686 0.00199 0.412876 
0.070208 -0.311269 -0.071313 
-0.051289 0.235647 0.502536 
-0.527332 0.100351 0.532803 
-0.217491 -0.343725 -0.30874 
-0.468925 0.345514 0.345037 
-0.385073 -0.443831 0.143065 
-0.217968 -0.436983 0.04495 
0.430353 -0.484358 -0.091644 
0.849849 -0.203657 -0.201772 
0.775451 -0.364634 -0.155665 
-0.232224 0.457698 0.516036 
-0.238116 -0.010676 0.488943 
0.554155 -0.550789 -0.010388 
-0.698551 -0.402091 0.117773 
0.436178 -0.514983 -0.039157 
-0.045432 -0.265261 0.074509 
-0.544047 -0.192972 0.397835 
0.948415 0.153483 -0.037317 
0.330779 0.355296 0.151417 
-0.294808 -0.453598 0.040559 
0.665258 -0.47577 -0.025408 
-0.367829 0.217571 -0.119695 
0.415903 -0.511089 -0.004212 
-0.29365 -0.027055 0.475755 
0.175658 0.392506 -0.472926 
-0.631407 0.040466 -0.004016 
-0.209559 0.457358 0.513565 
-0.046774 0.437348 0.461036 
-0.282751 -0.438623 -0.05682 
-0.182959 -0.329856 0.172182 
-0.340494 -0.227129 0.357361 
0.678424 -0.317068 0.37036 
-0.656835 0.035751 0.118181 
-0.436627 -0.452571 0.004626 
-0.412676 0.018937 0.528995 
0.703881 -0.421969 -0.139954 
0.21482 -0.31703 0.106411 
0.577107 -0.557097 0.138994 
0.468517 0.224555 0.314058 
-0.08045 -0.378126 -0.203443 
-0.749363 -0.216625 0.237339 
-0.010579 -0.084644 0.202254 
-0.63331 -0.231959 -0.242961 
-0.350095 -0.452343 9.9e-05 
0.796868 -0.237165 0.305572 
-0.544891 -0.446997 0.057179 
-0.196215 0.438324 -0.072677 
-0.254883 -0.222262 0.304788 
0.343241 -0.221867 -0.401061 
-0.091422 -0.146639 0.261857 
-0.05142 -0.358938 -0.245491 
-0.34029 0.449805 0.434748 
0.37101 0.570972 0.074189 
0.870486 -0.28789 -0.052833 
0.365305 0.008795 0.276674 
-0.053914 -0.31929 -0.001733 
0.477992 -0.57386 0.130637 
-0.636789 0.001685 -0.103322 
-0.735284 -0.374685 0.093905 
-0.60852 -0.444961 0.071105 
0.681408 0.262131 0.353903 
-0.19367 -0.404905 -0.160182 
0.57385 -0.337587 0.408534 
0.807924 0.093005 0.374641 
-0.60631 0.136106 0.304168 
0.284673 -0.208358 -0.41322 
0.898349 -0.00111 0.255115 
-0.660992 -0.428681 -0.056703 
-0.446341 -0.152406 -0.399058 
-0.703039 -0.008559 0.131457 
0.324575 -0.022421 0.244867 
0.036132 -0.311885 -0.166218 
-0.154778 -0.124155 0.343418 
0.744201 -0.404783 -0.113054 
0.240754 0.714501 -0.208909 
0.424562 -0.284315 0.392705 
-0.449055 0.334003 0.242177 
-0.324049 -0.451612 0.065763 
-0.659124 -0.16656 0.357483 
-0.678785 -0.423304 -0.035323 
-0.373962 0.322445 0.103842 
-0.693101 -0.018019 0.100956 
-0.430926 -0.106982 -0.403996 
-0.107568 -0.386691 -0.207365 
-0.140539 -0.315064 0.126931 
-0.419999 -0.092784 -0.407924 
-0.120742 0.556563 0.100823 
0.174545 0.696615 0.138419 
0.307217 -0.065421 0.229314 
0.141639 0.316453 0.331894 
-0.588254 -0.103969 0.438211 
-0.143832 0.528554 0.025049 
-0.574204 -0.412199 0.203533 
0.6271 0.320016 -0.076495 
0.269453 0.21324 0.177568 
-0.405721 0.185419 -0.088103 
0.519055 -0.171018 0.486533 
-0.116327 0.151062 0.505828 
-0.758014 -0.080111 0.134384 
0.524415 0.217066 -0.268665 
0.285928 -0.389431 -0.15574 
0.314915 -0.442386 0.087702 
-0.342508 0.36426 0.157084 
0.681425 -0.074991 0.467101 
0.040462 -0.201835 0.098978 
0.517672 -0.535569 0.258118 
-0.416492 0.160628 -0.129949 
-0.343071 0.259781 -0.097457 
0.850335 0.038263 0.363215 
0.372769 -0.519099 0.161613 
-0.137136 0.099281 0.490377 
0.921215 -0.035326 -0.139215 
0.0258 0.102022 0.349376 
-0.750517 -0.249887 -0.141894 
0.739165 0.264459 0.323209 
0.88032 -0.262118 -0.01687 
0.262968 0.170505 0.188058 
0.333718 0.634484 0.093271 
-0.101343 -0.124726 0.298089 
-0.632902 0.01794 -0.068554 
-0.040578 0.628014 0.172558 
0.90482 -0.067279 -0.170091 
0.912113 0.14742 0.225669 
-0.066171 -0.376476 -0.090203 
0.152246 0.267945 0.296498 
-0.778634 -0.141064 -0.065409 
0.208882 -0.362661 -0.060168 
-0.630779 0.106644 0.288098 
0.027905 -0.297563 -0.017205 
0.547684 -0.556015 0.180149 
-0.444255 0.238871 0.073608 
-0.237795 0.424303 0.019481 
-0.313067 0.453669 0.473428 
-0.448347 -0.341033 0.277945 
0.57876 -0.431043 -0.240433 
-0.540647 0.24981 0.51435 
0.152544 0.681967 0.171784 
-0.37758 0.439316 0.311185 
-0.616558 0.084916 0.147965 
0.214142 0.62646 0.25656 
0.585193 0.155811 0.429172 
0.162168 0.743635 -0.184005 
-0.63451 0.095629 0.258381 
-0.510486 0.181659 0.550374 
-0.37767 -0.423297 0.177125 
-0.193279 0.519468 0.179998 
-0.543388 0.144637 0.082521 
0.179787 -0.333994 -0.098869 
-0.031173 -0.231487 0.101028 
0.064236 0.236241 0.423204 
-0.631408 -0.265952 0.316503 
-0.085616 -0.18429 0.238636 
-0.271112 -0.407022 0.137741 
-0.542154 -0.284211 0.337049 
0.220277 0.148538 0.203867 
0.345045 -0.198538 0.246838 
-0.657911 -0.43568 0.02024 
-0.504225 0.142913 0.027004 
0.327519 0.067507 0.219607 
0.631432 -0.521812 0.048041 
-0.189002 -0.358978 0.122552 
-0.609609 -0.158414 0.394723 
-0.308706 -0.159004 0.375512 
-0.299456 0.494031 0.360801 
-0.159615 0.416865 0.534667 
0.327937 -0.419292 0.190382 
0.085837 -0.301726 -0.014711 
0.278535 0.678033 -0.161431 
0.494707 0.304994 -0.126656 
-0.46096 0.36925 0.381394 
-0.145701 -0.180156 0.280727 
0.683238 -0.149535 -0.36506 
-0.365961 0.268189 -0.036971 
-0.566955 0.086769 0.006847 
0.113637 -0.297251 0.026317 
-0.299268 -0.437829 0.133206 
0.078588 0.651028 0.165722 
0.878847 -0.24439 -0.119877 
-0.100663 0.119349 0.472384 
-0.467798 -0.443227 0.144754 
-0.311298 0.239116 -0.195342 
0.213936 -0.166111 -0.453839 
-0.664167 -0.019269 0.366404 
-0.47149 0.105703 -0.123981 
-0.517687 -0.440931 0.116536 
-0.054198 0.625668 0.133784 
0.67683 -0.472776 0.059546 
0.426232 0.294645 0.115232 
-0.627724 -0.051383 0.424125 
0.198041 0.73011 -0.0666 
-0.516569 0.30062 0.49474 
-0.544352 0.168847 0.188238 
-0.010491 0.650148 -0.093667 
-0.281573 0.17081 -0.342049 
0.289768 0.225255 -0.465868 
-0.070385 0.622591 0.201768 
0.629849 -0.436851 0.308095 
-0.475095 0.198809 0.061727 
0.250158 0.707406 -0.105444 
-0.038351 -0.354341 -0.25089 
-0.26821 0.192003 -0.341252 
-0.07582 -0.099766 0.247926 
0.76145 -0.384122 -0.146272 
0.038399 -0.283758 -0.387858 
0.062782 0.693411 -0.150465 
-0.402683 0.209954 -0.048966 
0.151757 -0.31901 0.014784 
-0.10014 0.57839 0.105507 
-0.259991 0.205401 -0.337012 
-0.542806 -0.288516 -0.310982 
0.014057 -0.298848 -0.013819 
0.829846 0.144438 0.313715 
0.174053 -0.307856 -0.137588 
0.729974 0.055399 0.456193 
0.751831 -0.413436 0.038122 
-0.551848 -0.043405 0.495198 
-0.413361 -0.422856 0.203815 
0.036468 0.635 0.120711 
0.800044 0.059289 -0.257533 
0.418009 0.447761 -0.037304 
0.123638 -0.306031 -0.117228 
0.369598 0.396778 0.109658 
0.810763 -0.335059 0.129438 
0.873345 -0.258378 0.035294 
0.21105 -0.250524 0.130052 
0.724428 -0.435793 -0.017645 
0.685971 0.300802 -0.118797 
-0.170521 -0.349732 -0.288163 
-0.235789 0.246746 -0.329738 
-0.263589 0.510434 0.399714 
-0.742199 -0.079844 0.26517 
0.285689 0.155627 0.19581 
0.605887 0.266683 0.376363 
-0.449536 0.275974 0.560011 
0.534955 -0.348449 -0.313802 
-0.068781 0.569665 -0.101958 
0.087247 0.25212 0.400188 
0.02258 0.643155 -0.246206 
0.318382 0.664192 0.044743 
0.611342 0.218488 -0.239992 
-0.605479 -0.456748 -0.071175 
0.645789 -0.485474 -0.050875 
0.780056 -0.342447 -0.174147 
-0.190635 0.457814 -0.046256 
0.846527 0.217583 -0.140676 
-0.619635 0.086255 0.169303 
-0.020519 0.021717 0.302369 
-0.262059 0.263892 -0.250908 
0.280936 0.265276 -0.465247 
0.287444 0.668321 -0.163127 
0.402769 0.369736 0.057478 
0.586059 0.284296 0.363999 
-0.429602 0.039187 0.539225 
0.653263 0.302723 0.304937 
-0.678535 0.001974 0.015229 
-0.067321 0.574474 -0.059593 
-0.196021 0.303803 -0.305862 
0.526401 0.279658 -0.178929 
0.172136 0.206468 0.257004 
0.261201 -0.125964 0.160564 
0.344537 0.31261 0.152019 
0.546928 -0.560762 0.019215 
0.492364 -0.575619 0.137003 
-0.197757 0.02385 0.506296 
-0.34243 0.399842 0.524391 
0.825756 -0.314675 0.137511 
-0.121511 0.509254 -0.074091 
-0.65451 -0.282438 -0.194437 
-0.298756 -0.162525 0.361904 
-0.734768 -0.135185 -0.120539 
-0.542349 0.015941 -0.184942 
-0.60412 0.124008 0.200451 
-0.315956 0.474849 0.366779 
0.179644 -0.333514 0.031661 
-0.244981 -0.048391 0.460412 
-0.082974 -0.112744 0.252821 
0.357381 0.138187 0.244002 
0.415437 0.338248 -0.309663 
-0.457076 -0.457269 0.030013 
-0.180409 0.449349 0.512673 
0.52219 -0.4382 0.354591 
0.811708 -0.32595 0.152314 
0.460556 0.137298 0.411754 
-0.445427 -0.297496 -0.360123 
0.694242 -0.15875 0.435889 
-0.413351 0.177335 -0.085136 
-0.525965 0.280511 0.360964 
-0.334349 0.02765 0.529813 
-0.440689 0.161306 -0.067595 
-0.37642 -0.028884 0.491344 
-0.0797 0.27932 0.530804 
-0.280463 0.420043 0.169079 
0.716198 0.290307 0.314377 
0.207598 0.565013 -0.398588 
-0.290173 0.411379 0.530413 
-0.192479 -0.338543 0.167987 
-0.088793 0.532243 -0.177722 
0.211493 0.556125 0.281307 
0.370828 0.480494 -0.306811 
-0.011364 -0.068369 0.214949 
0.746118 -0.153504 -0.325912 
0.21902 -0.33329 -0.13515 
-0.022468 0.585513 -0.250844 
0.08726 0.699427 -0.009764 
-0.356072 -0.437745 -0.098764 
0.937023 -0.018797 -0.013995 
0.528463 0.278091 0.188621 
0.965042 0.177431 0.097683 
-0.617071 -0.104996 0.416119 
0.287847 -0.315718 0.16221 
-0.467244 -0.215774 -0.381228 
-0.657516 -0.118961 -0.200256 
-0.452769 -0.199699 -0.392174 
-0.423611 0.304723 0.166662 
0.052845 0.315656 0.453581 
-0.149644 -0.401207 0.022369 
0.422126 -0.20807 -0.411668 
0.379891 0.567834 -0.108471 
0.722554 0.31973 -0.057908 
0.732738 0.346908 0.118495 
-0.452281 -0.169444 -0.395367 
-0.671286 -0.398419 0.169736 
0.667725 -0.490378 0.129983 
-0.082257 -0.389663 -0.091622 
0.120064 0.354775 0.372328 
-0.206638 0.487098 0.152232 
0.105532 0.520889 0.354434 
0.746572 0.261479 -0.169355 
-0.012078 0.631841 0.069723 
-0.087662 0.541053 -0.107655 
-0.322343 0.465201 0.384425 
-0.630546 -0.358012 0.251374 
-0.417471 -0.29377 0.330165 
0.090523 0.342168 -0.481144 
0.560411 -0.564411 0.113285 
0.396948 -0.529626 0.147699 
0.727047 0.112498 0.421656 
-0.281592 0.500698 0.406631 
0.417665 -0.546678 0.16945 
-0.115278 -0.184988 0.26755 
0.086283 0.660651 0.084353 
-0.580688 0.181569 0.491278 
0.475318 0.236606 0.299563 
0.145258 0.259233 0.314404 
0.063748 0.304901 0.437763 
-0.053953 0.513346 0.408349 
-0.607228 0.001641 0.460763 
0.706444 0.291112 0.316703 
-0.134143 -0.065051 0.354866 
-0.462506 0.351858 0.34206 
0.130999 0.573119 -0.392866 
0.078933 0.398315 0.415874 
0.466532 -0.270831 -0.369468 
0.067198 -0.2744 0.034755 
-0.547725 0.166523 0.21382 
0.404167 -0.241099 0.398255 
-0.001589 -0.080898 0.197683 
0.385378 0.507766 -0.176236 
-0.101444 -0.398815 -0.092789 
0.340417 -0.433638 -0.115471 
0.463896 -0.243166 -0.388482 
0.108242 -0.06652 0.165914 
0.442378 0.286766 0.114665 
0.303791 -0.187515 0.186713 
-0.406264 -0.024603 -0.392425 
0.550833 -0.415793 0.367482 
-0.448991 -0.453531 -0.004184 
-0.624844 0.040299 0.44205 
0.356694 -0.195149 0.293229 
-0.425394 0.232917 0.022817 
0.315057 -0.412722 -0.129717 
0.844851 -0.317331 0.022239 
0.412395 -0.419658 -0.215473 
0.694818 -0.391354 0.27809 
-0.5826 -0.07429 -0.266741 
0.657308 0.323101 0.13419 
-0.661305 0.029733 0.117908 
-0.546032 -0.153938 -0.329571 
0.491269 -0.564364 0.038265 
-0.287962 0.496192 0.378189 
0.778763 -0.317876 0.240837 
-0.650012 0.046087 0.384288 
-0.359196 -0.325908 0.290515 
-0.733888 -0.35673 0.137774 
0.310625 -0.357301 0.1762 
-0.136476 0.541433 0.366782 
-0.462732 0.158921 0.561751 
0.264722 -0.362052 0.114221 
0.445434 0.288053 0.107378 
0.84797 0.266862 -0.099272 
-0.037434 0.304419 0.513877 
0.44991 0.034555 0.442632 
-0.135546 0.063866 0.466722 
0.461791 0.216302 0.260914 
0.08547 0.179737 0.345374 
-0.305486 -0.313053 0.266466 
-0.304936 -0.018342 0.491248 
-0.688645 -0.422559 0.01651 
0.597454 -0.439918 0.328998 
0.325406 -0.278027 -0.328695 
-0.400166 0.302926 0.1127 
0.090805 -0.021275 0.192169 
-0.533174 0.141508 0.066108 
0.675608 0.199322 0.394791 
0.006118 0.574888 0.333048 
-0.288617 -0.417569 -0.182416 
0.689611 0.330834 0.135373 
-0.275541 0.500763 0.294677 
0.391059 0.414684 0.059986 
0.086987 -0.277279 -0.232088 
-0.38348 -0.235599 0.356246 
-0.183845 0.532495 0.183515 
0.852773 0.052779 -0.209277 
-0.696692 -0.35855 -0.092196 
0.403918 0.317687 0.108032 
-0.449412 0.043339 -0.287173 
-0.054857 -0.235344 0.120532 
0.584249 -0.552742 0.08783 
-0.188132 0.404853 -0.165249 
0.76408 0.351245 0.090145 
0.254838 -0.34558 -0.158495 
-0.475947 0.088142 -0.146519 
-0.307673 -0.422865 -0.186927 
0.52149 -0.4971 -0.14157 
-0.315883 0.112978 -0.370825 
-0.152653 -0.273648 0.212726 
-0.703002 -0.40499 -0.019649 
0.165401 0.689833 0.150161 
-0.35204 -0.117755 0.417799 
0.232578 0.451477 0.248525 
0.101802 0.656304 0.223737 
-0.30612 0.130114 -0.359895 
0.216511 0.728265 -0.172831 
-0.631137 0.086041 0.193097 
-0.268808 0.507306 0.331505 
0.67347 0.12117 0.438023 
-0.598242 0.099585 0.094404 
-0.122533 -0.271564 0.166778 
-0.100502 -0.319709 0.05017 
0.465615 0.220519 0.278506 
-0.175235 0.359173 -0.255459 
-0.770185 -0.154959 0.168294 
-0.607592 -0.413779 0.180556 
0.850716 0.005748 -0.229206 
0.14805 -0.107001 0.137511 
-0.019792 -0.147433 0.165873 
0.264373 -0.403509 0.008555 
0.256763 -0.38307 0.068423 
-0.334203 -0.433698 -0.128749 
-0.287881 0.161391 -0.345152 
0.798238 0.106409 0.376023 
-0.280545 -0.44337 0.089424 
0.683762 -0.148822 0.443678 
-0.273117 0.180319 -0.346934 
0.705866 -0.328733 0.325128 
0.709661 -0.066644 0.462318 
0.597219 -0.307145 0.41705 
-0.553145 0.163082 0.210053 
0.401626 -0.355816 0.328161 
-0.360245 -0.431366 -0.20048 
-0.725705 -0.079074 -0.060159 
0.762998 0.126558 0.385442 
-0.534466 0.138591 0.534074 
0.514158 0.270297 0.219048 
-0.662973 -0.029212 0.368055 
0.117956 -0.277129 -0.192708 
-0.110065 -0.396986 -0.172607 
-0.203852 0.483226 0.133392 
-0.123209 0.113694 0.483847 
-0.604153 -0.364378 0.252864 
-0.451006 0.21085 0.043946 
-0.716404 -0.384664 0.117432 
0.675045 -0.444624 0.26463 
-0.190245 -0.218202 0.274481 
0.110137 0.575186 0.329397 
-0.333052 -0.439204 0.138347 
0.030036 0.270965 0.462616 
-0.325738 0.371755 0.140989 
0.920061 -0.187172 -0.060208 
0.77983 -0.166558 -0.296395 
-0.245351 0.234625 -0.331597 
-0.468503 -0.356032 0.261705 
-0.239182 0.241378 -0.332458 
0.34635 0.217473 -0.435741 
-0.616046 -0.1796 -0.265189 
-0.298267 0.452422 0.25282 
-0.05566 -0.052007 0.283641 
-0.2265 0.257444 -0.329341 
0.758817 -0.29925 0.29951 
0.522632 0.224109 0.394675 
0.796871 -0.33498 0.185442 
-0.278467 -0.432731 -0.092912 
-0.442782 -0.167204 0.419063 
-0.078859 0.584152 0.005986 
0.083343 -0.311449 -0.086713 
0.219429 -0.347089 -0.11862 
-0.089328 -0.052584 0.333753 
-0.172313 -0.036416 0.431763 
0.39366 -0.450922 -0.131374 
-0.216747 0.277006 -0.318276 
0.850107 -0.14339 0.299614 
0.041063 -0.102295 0.162593 
-0.111354 0.241021 0.536744 
-0.343039 0.203611 -0.218865 
0.641802 0.043063 0.485562 
0.736748 -0.418772 -0.074456 
-0.205485 0.29114 -0.31732 
0.140528 -0.31927 -0.000812 
-0.1096 0.482456 0.457893 
0.335622 0.582232 0.131187 
0.828781 -0.261521 0.215714 
-0.310533 0.480835 0.360485 
-0.755942 -0.202741 0.231387 
0.344165 0.367394 0.141221 
0.7653 -0.337375 0.231348 
-0.012381 0.626105 0.190472 
-0.186802 0.316113 -0.305594 
-0.296252 0.485162 0.387465 
-0.249258 -0.423882 -0.121563 
-0.497913 -0.253591 0.364339 
0.921998 0.118294 0.216652 
0.744597 -0.199112 0.378743 
-0.179507 0.329505 -0.302636 
0.326166 0.594594 -0.277424 
0.603795 -0.539559 0.164594 
0.320093 -0.047648 0.252302 
0.523864 0.108225 0.452939 
-0.638803 0.089976 0.316068 
-0.168884 0.347546 -0.294498 
0.028995 0.093871 0.333589 
-0.165222 0.355122 -0.290931 
-0.572716 0.142858 0.503217 
0.06958 -0.29835 -0.016124 
-0.088609 0.473172 -0.280724 
0.854143 -0.197252 0.181748 
0.220483 -0.364568 -0.094565 
-0.053531 -0.369101 -0.194041 
-0.17845 -0.346303 0.131595 
0.820895 -0.033182 -0.268719 
-0.254699 -0.355733 0.181818 
-0.001082 -0.229043 0.086398 
0.896062 -0.001554 0.265742 
0.004519 -0.332792 -0.203135 
-0.570863 -0.168227 0.407839 
0.865488 0.074979 0.331304 
0.65592 -0.493349 0.055158 
0.031104 0.398995 0.450832 
-0.087229 -0.257586 0.1457 
-0.363885 0.172514 -0.235664 
-0.214433 0.526338 0.240417 
-0.038484 0.006605 0.307104 
-0.000146 0.642576 0.041881 
0.2159 0.729543 0.046348 
0.822343 0.310779 0.190373 
0.376978 -0.14407 0.354772 
0.264569 0.674519 -0.259987 
0.312424 0.018641 -0.480329 
0.84135 -0.279357 0.120357 
0.826779 -0.341825 -0.008931 
0.503963 -0.446575 0.34937 
-0.763953 -0.112416 0.04439 
-0.717149 -0.0158 0.163811 
-0.448734 -0.217442 -0.390828 
-0.469325 0.306385 0.526527 
0.964152 0.173516 0.107855 
-0.511504 -0.370739 0.235842 
0.871631 0.01164 -0.203056 
-0.040108 0.48449 -0.358325 
-0.163273 -0.333674 0.14175 
0.80593 -0.282487 -0.199293 
-0.554795 -0.358195 0.271662 
-0.448268 -0.186005 -0.396533 
-0.477653 -0.0098 -0.325992 
0.37843 0.583875 -0.055967 
0.695466 0.340434 0.118286 
-0.548592 0.102452 0.013139 
-0.041957 -0.093466 0.21976 
-0.402302 -0.434531 -0.203172 
-0.285996 -0.337815 0.231608 
-0.520772 -0.383177 -0.227717 
-0.779927 -0.306359 -0.079877 
0.5201 -0.570265 0.154213 
0.929471 0.029347 0.134719 
-0.696972 -0.414755 0.018091 
0.322832 -0.109099 0.250612 
-0.428025 -0.142371 -0.409697 
0.297576 -0.154964 0.185407 
0.410488 -0.526686 0.230775 
0.108935 0.370261 -0.476768 
-0.1501 -0.263921 0.22193 
-0.435259 -0.123907 -0.403865 
-0.300109 0.1575 0.580897 
0.143096 -0.326238 -0.019049 
-0.208074 0.362614 -0.197729 
-0.003256 -0.253129 0.06913 
0.324587 -0.090447 0.266641 
-0.713425 -0.37524 0.142635 
0.937489 -0.055302 -0.071459 
-0.464523 -0.348223 -0.307206 
-0.300696 0.010839 0.514977 
-0.268311 0.271985 0.582253 
-0.635217 0.101479 0.286459 
-0.221196 0.041185 0.532455 
-0.126978 -0.089651 0.335822 
0.834435 -0.163671 0.310389 
-0.649226 -0.308579 -0.175119 
-0.710304 -0.397901 0.033332 
0.472725 0.143951 -0.382996 
-0.256057 -0.436912 0.073098 
-0.437091 0.069002 -0.269244 
-0.662439 -0.048704 -0.130568 
-0.638016 0.066964 0.396656 
0.402796 0.137568 0.329437 
-0.795679 -0.198281 0.120242 
0.514135 -0.578498 0.106428 
0.295342 -0.126349 0.185056 
-0.75501 -0.139698 -0.10067 
-0.499796 0.32397 0.381176 
0.474451 -0.453567 -0.212063 
-0.598833 -0.336211 0.286025 
0.816792 0.010981 0.396742 
-0.630611 -0.121519 0.395352 
-0.7255 -0.38722 -0.014584 
0.115647 0.093839 0.26578 
-0.529567 -0.184951 0.406654 
0.305153 0.677686 0.078209 
-0.372315 0.006862 -0.402483 
-0.50443 0.053821 -0.169476 
0.335664 0.609204 -0.228692 
-0.081112 -0.165603 0.235143 
0.094602 -0.279075 0.042716 
0.264187 -0.404538 0.025483 
0.530204 0.17342 0.42 
0.478415 0.297034 -0.171181 
-0.346374 0.365535 0.167345 
0.573799 0.313932 0.009138 
-0.008708 0.034771 0.306347 
-0.50635 0.177883 0.091271 
0.802599 -0.338111 0.154592 
-0.708799 -0.00355 0.144253 
-0.440641 -0.31016 0.321145 
-0.450365 0.294487 0.206786 
0.349433 -0.115565 0.313805 
0.827103 0.312637 -0.021736 
0.624853 -0.470166 -0.128399 
0.06563 -0.310012 -0.10901 
0.680143 0.33323 0.12458 
0.392675 -0.50617 0.041755 
0.056916 -0.220736 0.08844 
-0.088417 0.605452 0.128558 
-0.55337 -0.222339 0.374633 
0.490528 0.055722 0.466288 
0.656231 0.249062 -0.183932 
-0.324779 0.074162 -0.401248 
0.327149 -0.454722 0.035366 
-0.29193 -0.336272 0.238211 
-0.540467 0.170531 0.12812 
0.217284 0.690346 0.171923 
0.715641 -0.225367 0.385777 
0.309135 -0.029596 -0.480794 
-0.382694 0.101125 -0.29766 
0.858396 -0.172497 0.256799 
-0.356472 0.001342 0.508039 
-0.201635 0.454094 -0.025257 
0.31834 -0.340126 -0.249831 
-0.187742 -0.390968 0.081849 
-0.417557 0.319606 0.548038 
0.313968 0.617586 -0.267842 
-0.047564 0.491903 0.430204 
-0.651802 0.029077 0.014511 
0.46155 -0.044384 0.464289 
-0.338569 0.097046 -0.364213 
-0.584505 0.022367 0.490944 
0.33876 0.171821 0.202908 
-0.639623 -0.289569 0.294432 
-0.326373 0.106852 -0.364853 
0.170604 0.436647 0.308198 
0.657745 -0.499703 0.190345 
-0.435398 0.260219 0.103822 
0.295113 0.336956 0.175728 
0.230354 0.105263 -0.493197 
-0.19704 -0.36025 0.152187 
-0.177683 0.513824 0.136396 
0.084674 0.309128 0.416604 
0.100151 0.40821 0.387601 
0.669144 -0.478993 0.066656 
-0.062033 -0.182993 0.179844 
0.907829 -0.091429 0.012042 
0.257952 -0.385909 0.06346 
0.052851 0.630431 0.278436 
-0.286925 -0.146204 0.365374 
-0.40652 -0.406934 0.223632 
0.36148 0.608182 -0.001324 
0.852689 -0.070648 0.333005 
0.249205 -0.126266 0.156559 
0.320716 0.656917 0.081088 
-0.268601 0.396592 0.020878 
-0.196617 0.543922 0.361399 
-0.291517 0.155348 -0.352778 
-0.371917 -0.412551 -0.250729 
-0.288278 0.158328 -0.35341 
-0.055287 0.563918 -0.194537 
-0.30644 -0.174923 0.364249 
-0.716357 -0.394935 -0.013417 
-0.275466 0.172221 -0.35248 
-0.06032 0.483325 0.440483 
0.540793 -0.543564 0.221945 
-0.526264 0.188633 0.187204 
-0.28172 -0.319318 0.239421 
0.048898 0.526171 0.374869 
0.33345 -0.182452 -0.43157 
0.175897 -0.337476 -0.085599 
0.436977 -0.333004 0.376642 
-0.500218 -0.270249 0.343179 
-0.260915 0.147349 0.576541 
-0.154948 0.455034 -0.155078 
0.034461 -0.02689 0.213398 
0.232025 0.09967 0.198295 
-0.259962 0.200591 -0.343867 
0.048082 0.636841 0.256809 
0.182378 -0.345975 -0.053714 
0.822577 0.213615 0.28286 
0.824232 -0.189101 0.306648 
0.342326 -0.091171 0.308477 
-0.253161 0.212164 -0.338671 
0.730548 0.293175 0.301336 
0.869503 0.011517 0.330795 
-0.634639 -0.179231 0.368176 
-0.324926 -0.230868 0.334179 
-0.63735 0.075414 0.361212 
0.395512 0.482959 0.05483 
-0.683298 -0.055013 -0.110274 
0.637164 -0.022119 0.490948 
-0.415082 0.319441 0.178687 
-0.05771 0.602963 0.02654 
0.068807 0.505579 -0.413115 
0.834621 0.324643 0.080127 
0.052812 -0.231845 0.079563 
-0.412989 -0.156658 0.415765 
-0.120815 0.488965 -0.19434 
-0.18853 -0.339273 0.165371 
0.651364 -0.445902 0.282774 
0.39277 0.157608 -0.424292 
-0.764142 -0.123608 0.194212 
-0.596366 -0.135774 -0.277173 
-0.65794 0.012815 0.37994 
0.631078 0.240433 0.384684 
0.58874 -0.317508 0.415096 
0.040842 0.175319 0.418434 
-0.223191 0.267901 -0.320945 
-0.29309 -0.143823 0.370523 
-0.370837 0.330651 0.561429 
-0.067707 0.619856 0.245301 
-0.093638 0.543258 -0.148781 
-0.211805 0.28131 -0.322793 
0.586309 -0.357139 -0.299539 
-0.694108 0.01845 0.165482 
0.086424 -0.294475 0.003145 
-0.038444 0.471772 -0.371966 
0.441826 -0.031699 0.435102 
0.028453 0.341828 0.471771 
-0.165271 0.477567 0.476117 
-0.006385 0.639395 0.052799 
-0.350045 0.294554 -0.025412 
0.198917 -0.309663 0.09857 
-0.021525 -0.331567 -0.115475 
-0.793363 -0.172364 -0.054049 
-0.57891 0.245257 0.445265 
0.625625 0.177081 0.419599 
0.064189 0.181505 0.391356 
-0.364819 -0.44573 0.103005 
-0.661112 -0.403528 0.161769 
0.326889 -0.392796 -0.191234 
-0.185306 0.315937 -0.311858 
0.875029 -0.010763 0.314921 
0.637532 -0.438481 -0.176543 
-0.179237 0.32877 -0.307373 
0.805821 -0.332674 0.160171 
0.168423 0.475691 -0.445433 
0.072605 -0.302681 -0.027399 
-0.174869 0.336954 -0.301695 
-0.768994 -0.114687 0.001231 
0.562574 0.31085 -0.031392 
0.037851 -0.303942 -0.042234 
0.407899 0.506696 -0.09221 
-0.699781 -0.020746 0.033519 
-0.179127 0.466913 -0.045728 
-0.161983 0.357277 -0.299268 
0.122082 0.726617 -0.105201 
0.338035 -0.257941 0.21769 
-0.159663 0.364497 -0.290323 
-0.104757 0.527121 -0.067026 
-0.465126 0.217617 0.081575 
0.548542 -0.439145 0.349797 
0.19757 -0.355615 -0.063386 
-0.243989 -0.384687 -0.250114 
-0.29745 -0.442666 0.103704 
0.345079 0.129411 0.241724 
-0.619665 -0.424306 0.136829 
0.28658 0.252662 0.181422 
-0.445151 -0.454107 0.018205 
-0.096274 -0.327288 -0.333435 
0.703746 0.347507 0.083483 
-0.532333 -0.423557 0.185775 
-0.329928 -0.206239 0.360391 
0.723911 0.34391 0.02722 
-0.529819 0.196548 0.231056 
0.833499 0.287301 -0.089831 
-0.19848 -0.435844 -0.001051 
0.151397 -0.211201 0.118082 
0.188642 0.715201 -0.24871 
0.128878 -0.03051 0.179039 
0.084724 0.706952 -0.048346 
-0.143402 0.584483 0.259781 
0.226624 -0.109469 0.150853 
0.358008 0.572647 -0.238605 
-0.333032 0.454643 0.432355 
-0.123811 0.292249 0.552473 
-0.465896 -0.240041 -0.375769 
-0.670756 -0.430518 -0.041062 
-0.774066 -0.320027 0.008244 
-0.410587 0.132606 -0.208118 
-0.458801 0.037359 -0.279722 
-0.645254 0.049118 0.394848 
-0.355716 0.415054 0.47565 
-0.66205 -0.412139 0.13267 
0.334707 0.643747 0.06987 
0.381894 -0.313651 0.313339 
-0.389471 0.316681 0.120607 
-0.501254 -0.148022 0.44627 
-0.139454 -0.161992 0.294981 
0.459254 -0.503833 -0.100099 
0.645046 -0.425434 -0.205139 
-0.042482 -0.289654 0.042475 
0.489682 -0.020137 0.489635 
0.727038 -0.429309 0.091491 
0.709493 -0.420261 0.186921 
-0.300044 -0.014285 0.495426 
0.204276 -0.341382 -0.112472 
-0.371109 0.199101 0.581937 
-0.654792 -0.249238 0.31211 
0.228629 -0.369247 0.032826 
-0.439918 0.194293 -0.004113 
-0.18894 0.476637 0.046084 
0.756772 0.322355 -0.030337 
0.357405 -0.498675 0.175275 
-0.388711 -0.449898 0.045953 
-0.354976 0.195293 -0.18439 
-0.185062 0.485442 0.05648 
-0.09609 0.184455 0.500434 
-0.364057 0.321161 0.567191 
0.883128 -0.237824 0.027588 
0.181928 -0.242403 -0.373353 
-0.215057 0.053984 0.539279 
-0.730877 -0.369912 0.120323 
0.131106 0.62996 0.283262 
0.425952 -0.184328 0.443577 
0.697455 0.141435 0.413706 
0.200334 0.733408 -0.097224 
-0.16386 0.444825 -0.138237 
-0.389609 0.364563 0.527267 
0.052145 0.685601 -0.09957 
0.500818 -0.576635 0.129147 
-0.122714 -0.080415 0.333222 
-0.804827 -0.224575 -0.007466 
